# .PCD v0.7 - Point Cloud Data file format
VERSION 0.7
FIELDS x y z intensity
SIZE 4 4 4 4
TYPE F F F F
COUNT 1 1 1 1
WIDTH 1407
HEIGHT 1
VIEWPOINT 0 0 0 1 0 0 0
POINTS 1407
DATA ascii
36.519554 23.109442 5.6528964 26
37.538059 23.169561 5.7702379 16
35.490822 23.302071 5.6704569 26
36.121609 23.262396 5.6122513 38
52.151764 23.352861 5.6923985 51
38.662346 23.557791 5.7549081 16
-17.556931 23.601976 5.6147304 12
35.532776 23.639378 5.6523719 14
35.725945 23.690147 5.6044049 16
35.854126 23.619881 5.6133919 32
37.567902 23.778572 5.645771 15
38.590469 23.66906 5.7546525 16
-18.645958 23.929621 5.6373301 13
-16.101833 23.906588 5.6382365 12
-16.971476 24.086298 5.6035171 18
-16.132183 24.048441 5.6538095 12
-15.992673 24.088467 5.6390352 12
36.163456 24.092873 5.6074386 10
37.034595 24.031965 5.6043038 15
36.40078 24.330154 5.7879076 23
36.255947 24.534208 5.6596532 11
26.146584 24.711374 5.6659617 9
36.541058 24.786629 5.6068859 15
-18.11418 24.826561 5.7873063 13
-17.964018 24.851011 5.6626573 26
28.047276 26.146412 5.682106 20
26.972683 26.609201 5.6131415 20
42.631443 27.615826 5.679575 16
9.0498362 28.068384 5.6885896 14
42.597359 28.065353 5.7068195 16
42.235382 28.305725 5.6837645 16
42.109364 28.462076 5.6810312 16
10.342047 28.998348 5.6955533 66
10.496085 28.964819 5.6871533 66
10.189899 29.166113 5.7352638 54
10.253947 29.063477 5.6450286 43
10.691987 29.049339 5.6786809 48
42.277618 29.061333 5.7423406 16
10.781779 29.229431 5.7478662 13
42.083069 29.329273 5.7406855 33
42.113735 29.517902 5.7578106 16
43.377182 29.728266 5.7157469 16
42.612431 31.26572 5.605546 42
40.003483 35.095055 5.7972221 17
42.017616 35.124668 5.6921716 32
41.853443 35.204311 5.6842976 31
-19.51627 36.904861 5.7174568 33
-19.278627 36.906536 5.7118702 36.666668
-18.989571 36.900085 5.7155991 43
-18.381584 36.992653 5.6135621 43
-18.466633 37.388943 5.6604409 44
43.426819 37.380466 5.6202908 51
-18.357227 37.494167 5.6655059 44
38.383537 38.151077 5.6299152 31
-0.1621542 38.391747 5.7912335 14
0.42058945 38.52943 5.7866502 28
38.634689 40.792664 5.6059275 51
38.350334 41.038387 5.6034861 51
-14.157495 43.123436 5.7524004 25
50.787109 43.195778 5.6392069 51
50.98539 43.12455 5.6490569 51
-13.604465 43.346905 5.7239008 26
36.940662 43.376659 5.6750021 51
37.389587 43.343853 5.7017989 51
-14.005915 43.465958 5.7606831 27
-13.963211 43.460285 5.7866015 25
-13.572695 43.412174 5.7571483 24
36.460285 43.558025 5.7733059 51
37.283852 43.52813 5.7081194 51
36.155182 43.773335 5.672173 51
36.276363 43.640987 5.7681561 51
36.987656 43.772675 5.6853118 51
37.41391 43.722569 5.7091436 51
37.675636 43.736572 5.6628008 51
51.902695 43.694298 5.7480989 51
36.56044 43.975609 5.7126436 51
37.274319 43.84465 5.7090731 51
36.090965 44.079689 5.6474791 51
36.9478 44.016212 5.6773396 51
37.223251 44.062115 5.6743774 51
35.624924 44.373936 5.7831078 51
35.857487 44.327602 5.6707788 51
36.060848 44.277229 5.7007885 51
38.143974 44.398506 5.6292353 51
38.352413 44.386196 5.641974 51
35.531841 44.572792 5.7924018 51
35.432083 44.709183 5.6902847 51
37.890915 44.641308 5.6311102 51
35.262733 45.072441 5.6133709 51
35.445244 45.025272 5.6208348 51
34.070446 45.337414 5.6219134 51
35.0933 45.340992 5.6377058 51
35.283352 45.277691 5.6443233 51
33.554901 45.525078 5.6775818 51
33.686562 45.577351 5.6421881 51
33.898312 45.408379 5.6170921 51
34.972237 45.428265 5.7016006 51
33.551029 45.701382 5.6427693 51
33.608032 45.719036 5.6414223 51
34.176361 45.694817 5.6102219 51
35.071789 45.640327 5.6585627 51
33.453812 45.862633 5.645823 51
34.35252 45.839085 5.6948905 51
34.895668 45.843357 5.6955624 51
35.171112 45.881573 5.6709394 51
33.46096 46.120625 5.6443892 51
34.732193 46.062607 5.7345324 51
33.291115 46.302135 5.6686864 51
33.128483 46.44595 5.6708608 51
33.260277 46.558506 5.6848946 51
34.923073 46.65379 5.7955933 51
36.10844 46.630196 5.6721511 51
36.704491 46.902737 5.7301383 51
36.776802 47.333191 5.7682614 51
36.443356 47.462948 5.7580276 51
33.570873 47.789631 5.7951603 51
33.720364 47.675171 5.7957816 51
35.349339 47.724903 5.7128763 51
34.724388 48.049866 5.7020206 51
34.978073 48.558628 5.652739 51
34.99514 48.600338 5.6565738 51
31.251545 49.309414 5.7749958 51
31.855686 49.586525 5.7795458 51
32.02964 49.492939 5.7814164 51
31.665375 49.65197 5.7746749 51
69.994598 49.619705 5.6317649 63
30.42732 49.839993 5.7256274 51
30.705194 49.935608 5.7473431 51
69.843712 49.889244 5.6319771 63
30.222418 50.032097 5.7890983 51
69.710052 50.153633 5.6330113 63
29.116882 51.647697 5.6049776 51
29.298908 52.14481 5.7523203 51
28.826855 52.387493 5.6492524 51
68.120033 53.355152 5.6512251 63
28.456675 53.447422 5.7154913 51
67.845467 53.512562 5.6420865 63
34.364929 53.74107 5.6630449 51
67.710167 53.781857 5.6439395 63
34.221886 53.872551 5.6668916 51
34.121342 54.088928 5.6795878 51
34.473904 54.186798 5.6057882 51
34.625694 54.056335 5.6026402 51
67.59539 54.068565 5.6474895 63
67.448708 54.310745 5.6479573 63
35.223106 54.574566 5.7701745 51
67.301003 54.571503 5.6490421 63
35.012184 54.603642 5.762516 51
67.201271 54.872837 5.6540184 63
67.127762 55.197266 5.6611743 63
32.577087 55.315308 5.6094942 51
32.744579 55.234638 5.6103878 51
66.876343 55.455486 5.6304221 63
65.798134 57.321255 5.6555738 63
14.843004 57.890282 5.7464132 51
15.028213 57.859119 5.747941 51
15.232686 57.977386 5.7637739 51
25.192787 57.988472 5.6560092 51
25.545628 57.849464 5.6553292 51
15.437016 58.086979 5.778861 51
30.522675 58.36235 5.6312943 51
65.613731 58.202015 5.6881809 63
17.626013 58.759159 5.7866101 51
17.819506 58.65947 5.7831235 51
18.075438 58.764915 5.7984633 52
-14.893427 58.868942 5.6927056 51
-14.694264 58.845383 5.6308727 51
-15.246912 59.219635 5.7859125 51
19.722576 59.322372 5.6232014 51
20.093815 59.300762 5.6298847 51
20.27029 59.266438 5.6310191 51
17.666061 59.56287 5.6009088 51
18.037182 59.555565 5.6076236 51
17.312737 59.693867 5.6057506 51
17.495388 59.635872 5.604085 51
24.652866 59.900696 5.6976776 51
24.49963 60.072815 5.7078533 51
17.254822 60.674992 5.6919308 51
16.914024 60.899292 5.6504822 51
15.939976 61.122246 5.7086644 51
16.143501 61.115322 5.711441 51
16.757299 61.035755 5.6045799 51
20.219744 61.528076 5.6067886 51
20.818792 61.628761 5.6278973 51
20.473732 61.889854 5.6434622 51
19.959377 62.336426 5.6721034 51
20.156902 62.345474 5.6767826 51
14.195364 62.573822 5.6063018 51
21.159437 62.450623 5.7065926 51
14.805468 62.768604 5.7262812 51
14.624281 62.981682 5.742568 51
14.033595 63.02066 5.644033 51
-15.066151 63.880402 5.7274089 53
2.438303 64.043388 5.7205911 51
2.1572542 64.591667 5.7705851 51
23.046852 67.187599 5.6357369 53
-1.9202766 68.147507 5.6689606 53
48.58086 -91.599854 5.9851427 64
9.5967646 -62.358532 5.9053893 53
10.106584 -61.025421 5.80198 52
10.1344 -60.900246 5.8524928 52
13.363283 -60.811092 5.8498631 52
13.598973 -60.89695 5.8623729 52
10.49307 -60.474533 5.8460412 52
11.140936 -60.428497 5.8553634 52
11.410511 -60.453972 5.9871216 52
-15.346766 -60.347828 5.8943777 55
11.295744 -59.885124 5.8128829 52
11.746526 -59.817009 5.9403844 51
10.648959 -59.683826 5.9022875 51
11.510464 -59.770164 5.8691444 51.5
11.941873 -59.753296 5.9397907 51
12.129242 -59.577133 5.9293542 51
12.330767 -59.490757 5.9270883 51
12.537888 -59.439049 5.9280195 51
14.250634 -59.320049 5.9646673 51
26.277094 -57.042828 5.9518032 52
26.581409 -57.186897 5.9755259 52
25.533314 -56.973198 5.9843102 52
28.110989 -55.327576 5.8955112 52
29.265293 -55.240513 5.9400868 52
27.45937 -54.878586 5.8324628 51
28.644556 -54.868641 5.8837056 51
30.253292 -54.827766 5.9538493 52
28.829218 -54.783844 5.8854518 51
29.155432 -54.522205 5.8801246 51
26.983368 -54.315117 5.8693252 51
27.468319 -54.201797 5.8841653 51
27.739235 -54.303463 5.9042878 51
27.93273 -54.220791 5.9066372 51
29.306017 -54.341095 5.873136 51
26.295847 -54.093433 5.8238435 51
26.512486 -54.074913 5.8318486 51
26.763975 -54.141479 5.8310318 51
26.957851 -54.063843 5.8334541 51
27.221714 -54.159111 5.8524656 51
27.874802 -54.099125 5.8592477 51
27.218126 -53.744766 5.83497 51
6.1891813 -44.694641 5.9716458 27
6.3437614 -44.735863 5.9791403 27
5.6523399 -43.637333 5.8365364 25
4.9701014 -43.42638 5.887567 50
5.0443373 -43.517448 5.8789144 37
5.355227 -43.449699 5.8760519 24
5.4924612 -43.584484 5.937829 24.5
4.6657319 -43.355488 5.8751626 25
4.8134441 -43.357498 5.877264 25
5.124877 -43.379566 5.8840303 50
5.2491989 -43.344177 5.9043369 37
5.5891418 -43.295464 5.8805771 25
5.6753292 -43.28973 5.929297 24
-22.764387 -39.649345 5.892777 51
-21.189505 -39.705643 5.8184285 51
12.632183 -37.045673 5.9238377 22
13.810452 -36.685688 5.9000745 22
14.120386 -36.612411 5.943758 19.5
13.914753 -36.542164 5.9586091 48
11.918929 -36.211079 5.9242516 45
12.071786 -36.285545 5.9351339 22
12.297732 -36.285057 5.9379568 22
2.4297743 -35.908516 5.9022264 23
13.480902 -35.782059 5.9412341 17
13.624346 -35.748562 5.9385028 17
2.7275734 -35.225716 5.82831 16
3.3773611 -35.201923 5.8122416 32
3.6400304 -35.326843 5.8247051 16
13.64045 -35.219662 5.8292341 21
3.2595103 -35.098026 5.8001251 32
12.152359 -34.534641 5.9214668 17
12.283736 -34.424965 5.908247 17
11.927598 -34.328438 5.8924026 34
12.478254 -34.245743 5.8865786 25.5
13.222836 -34.02795 5.8663073 16
14.061343 -34.103287 5.8876295 17
13.358623 -33.997593 5.8640337 16
13.89793 -33.967628 5.8674617 16
0.5348835 -33.667522 5.9117308 34
1.012296 -33.652348 5.9321842 14
1.4688346 -33.625107 5.9897194 15
13.588402 -33.69672 5.8276114 16
13.73171 -33.739929 5.8352575 16
0.4384861 -33.459312 5.8874755 17
1.1177602 -33.476028 5.96878 15
1.3674972 -33.407856 5.9568658 30
1.7327695 -33.472385 5.9651527 15
2.6058998 -33.412319 5.8781414 28
1.1738205 -33.210243 5.8632064 14
1.4087663 -33.368557 5.8872499 58
1.6257946 -33.303116 5.939559 30
1.9880247 -33.388592 5.9514852 30
3.0771382 -33.244255 5.8584075 28
1.2961929 -33.192844 5.8602157 29
1.8971462 -33.039028 5.8979855 14
2.720036 -33.114155 5.8325109 13
2.9225683 -33.152149 5.8816037 21.5
3.1466842 -33.100029 5.8433294 34.5
3.3654077 -33.059368 5.9014707 14
3.5819678 -33.199673 5.8683629 14
1.307687 -32.884464 5.8768582 14
2.7729359 -32.818974 5.8631191 14
1.0926538 -32.633434 5.8397131 14
25.780737 -32.213139 5.8078642 17
25.942402 -32.211781 5.8711057 18
-0.27585077 -30.946417 5.8473201 29
31.505491 -30.950377 5.8361678 24
-2.9408484 -30.605688 5.8667684 29
-0.36566162 -30.786276 5.8252091 29
-2.0141449 -29.610085 5.9989285 15
-0.99538326 -29.634136 5.9712896 61
-1.2020378 -29.478874 5.9544373 45
-0.70594406 -29.506786 5.944428 15
-2.1057024 -29.274134 5.9529366 30
-1.2769346 -29.314087 5.932456 45
-1.0438766 -29.346142 5.9302883 30
-2.2155676 -29.006157 5.9176059 15
-1.318449 -29.014427 5.88973 29
-0.74035358 -29.162018 5.8945279 29
31.297928 -29.083168 5.816896 18
31.499565 -29.148077 5.9543028 20
32.996178 -29.038755 5.9412761 21
-0.043330193 -28.90881 5.8385687 14
0.13872099 -28.898533 5.8325291 36
31.992302 -28.9519 5.9321632 20
32.771019 -28.949282 5.9155574 20
-0.34291935 -28.628578 5.8049192 14
31.953003 -28.552711 5.8021078 18
19.831308 -28.336349 5.9078436 13
20.794804 -28.37751 5.9377174 28
20.943233 -28.342022 5.9226274 21
1.3390265 -28.105581 5.9945908 46.333332
1.4947906 -28.193628 5.996192 46
19.978378 -28.09742 5.8806887 20
20.073317 -28.04183 5.9076257 22.666666
1.0879592 -27.829494 5.9547119 45.75
1.2588067 -27.814819 5.9573922 58
2.1250575 -27.909302 5.9270945 45
20.863615 -27.845554 5.9930735 28
1.1346204 -27.78488 5.9968567 57
1.2444687 -27.700611 5.9198151 45
2.458056 -27.798611 5.9535408 11
20.084827 -27.733452 5.9994845 13
20.387806 -27.648468 5.9290962 13
20.665625 -27.675768 5.8657565 13
20.902567 -27.712341 5.9219151 16
21.125595 -27.698818 5.9362631 20.5
21.250681 -27.653234 5.8898249 21.5
21.008436 -27.588535 5.9102912 13
21.337418 -27.598053 5.84519 14
-5.0662975 -26.485634 5.8739729 11
10.168592 -26.405325 5.8076925 11
-4.5265598 -24.92507 5.8335962 11
37.386574 -24.266174 5.8749499 28.5
37.434772 -24.210468 5.9037228 38
-10.29583 -24.162081 5.9648519 11
-10.187351 -24.187485 5.9598656 47
37.514858 -24.142538 5.8927231 49.42857
37.691521 -24.057714 5.9140768 35.42857
37.815216 -24.033707 5.9430385 19
-9.7676468 -23.832264 5.8654547 11
-9.3277264 -23.831396 5.9793663 48
37.904167 -23.93605 5.9137015 46.777779
38.064758 -23.848549 5.9218998 35.166668
-10.276287 -23.733387 5.8922076 23
-9.6231079 -23.777494 5.8442917 23
-9.5830479 -23.649323 5.9710598 48
-9.3841953 -23.713512 5.9646769 47
-9.1094561 -23.651766 5.9314046 59
-8.9322605 -23.635513 5.9140196 47
-3.7604761 -23.775169 5.9227543 26
-3.0576878 -23.621883 5.8954268 24
38.134254 -23.784208 5.9189162 39
-9.4002562 -23.536732 5.9369373 47
37.918812 -23.591503 5.8715181 19
-10.443096 -23.289679 5.9886174 48
-10.347463 -23.330338 5.986495 36
-3.727416 -23.355125 5.8204889 40
-0.41258049 -23.32579 5.8622389 13
-0.22877407 -23.202705 5.9846501 64
-0.13578701 -23.244478 5.8364325 26
37.712257 -23.228125 5.8227477 18
-1.0443304 -23.044579 5.9064355 58.5
-0.48144984 -23.078815 5.925561 69.25
-0.35076898 -23.131025 5.9695225 70.599998
-0.13680363 -23.168404 5.9719124 33
0.028090477 -23.132534 5.8118486 13
37.588505 -23.05431 5.828928 20
-1.0892557 -22.969437 5.8994474 59
-0.89318055 -22.893612 5.9105811 75.428574
-0.67377198 -22.871315 5.8965716 68.199997
-0.53269887 -22.917784 5.923223 79
-0.293547 -22.839563 5.9847589 58
-1.0761061 -22.710535 5.8852 63
-0.99061871 -22.631609 5.865468 62
-0.71043295 -22.744881 5.8863735 74.25
-0.52133948 -22.747129 5.9157786 61.666668
-0.397475 -22.661758 5.864068 63
-1.7831573 -22.447706 5.8083973 39
-1.0602298 -22.327726 5.8032684 69
-1.700731 -21.635157 5.8360667 60.75
-2.7218263 -21.445665 5.9316773 51
-2.2434192 -21.439976 5.9748306 49.5
-1.8997558 -21.55698 5.8314409 67
-1.251543 -21.575359 5.8005567 62
-1.1059018 -21.496307 5.8704491 51.333332
-2.8002291 -21.351192 5.8282866 78
-2.6467495 -21.397972 5.8298407 94
-2.4806161 -21.207331 5.9100819 68
-2.293045 -21.301922 5.8588209 47.75
-2.1627159 -21.356565 5.8195047 56
-1.9207635 -21.287086 5.9044776 52
-2.8842807 -21.034752 5.9072556 39
-2.7071924 -21.093185 5.8797879 48.666668
-2.4219966 -21.023304 5.8956718 64
-2.3289173 -21.11063 5.8990464 37.333332
-2.0422666 -21.174353 5.8825393 53.333332
-1.9159613 -21.084131 5.879148 100
-2.7183297 -20.941835 5.8897109 58.666668
26.57106 -20.662804 5.8674326 25
26.605671 -20.616482 5.8147182 12
-25.399773 -20.41013 5.8064718 24
-6.8773265 -20.356329 5.9285007 81
-21.915081 -20.090176 5.9886866 32
-22.984501 -19.926289 5.8368993 33
-22.666142 -19.93446 5.8047581 16
-21.184252 -19.906475 5.8902454 31
-22.127514 -19.766756 5.9822688 32
-21.630817 -19.698263 5.9202247 32
-21.262518 -19.726213 5.8818288 31
20.555185 -19.762177 5.950882 11
20.712502 -19.768595 5.9737787 46
20.354101 -19.551107 5.801538 44
20.430693 -19.4984 5.8053432 44
21.647112 -19.589062 5.9921541 11
20.417418 -19.349916 5.8760848 22
20.687225 -19.296436 5.8376503 31.5
19.950857 -19.097317 5.8497744 21
20.003855 -19.017532 5.8457956 42
20.342192 -19.14398 5.8379226 45
20.783941 -19.169096 5.8123565 11
21.048027 -19.073038 5.9291296 28
21.322437 -19.123989 5.9753056 23
29.82185 -19.095194 5.9457588 12
-2.4527369 -18.87948 5.9614515 33
20.044069 -18.91712 5.8370943 52
20.743782 -18.853046 5.9289074 43
30.149303 -18.809391 5.9361205 25
30.215372 -18.866501 5.9074359 12
30.426727 -18.927778 5.9398756 25
-4.4506283 -18.789261 5.9953117 59
-3.3372238 -18.716873 5.8855863 42
-2.6700935 -18.782246 5.9620862 44.5
-2.5086017 -18.69945 5.897027 35
-2.2921896 -18.761213 5.928473 44
-2.1985846 -18.789232 5.9259996 44
20.541641 -18.769424 5.8877192 42
20.768045 -18.674786 5.9074388 42
22.284859 -18.617401 5.9853916 10
-4.4334478 -18.544724 5.9334798 35
-4.2908354 -18.579235 5.9293809 57
-4.1463928 -18.404495 5.8735805 42
-3.1914721 -18.408548 5.941412 11
-2.8778706 -18.506849 5.9629607 36.5
-2.7504623 -18.498526 5.9396987 31.333334
20.962479 -18.534519 5.8816009 21.5
22.852848 -18.564629 5.9243841 10
23.102304 -18.583307 5.9592605 10
23.21319 -18.572973 5.9720602 10
-5.6326609 -18.201996 5.9659801 36
-4.0469942 -18.344826 5.8502283 41
-3.1049678 -18.319336 5.9395971 39.5
-2.8570735 -18.224417 5.9203711 38.5
20.59004 -18.27667 5.8257098 21
22.803831 -18.230291 5.9956446 11
-5.2266273 -18.189819 5.9217219 35
-4.4483681 -18.081671 5.997632 56
-4.2816734 -18.174898 5.9978037 56
-4.1323605 -18.132389 5.9906206 46
-3.9396164 -18.077988 5.9596786 36.333332
-3.2726088 -18.101425 5.9241767 66.5
-3.1641328 -18.147427 5.9110823 59
-2.8782797 -18.083454 5.934453 41
-2.7885065 -18.056761 5.8480368 43
22.487665 -18.115953 5.9286962 20.5
-5.6862459 -17.972141 5.9164696 35
-5.5909443 -17.939819 5.8987036 42
-4.4882383 -17.957443 5.9808464 45
-3.9559026 -17.967283 5.9522562 57
-3.1789284 -17.989338 5.8695507 65
-2.9593453 -17.984032 5.8689198 34
21.579626 -17.837534 5.9751997 10
22.630714 -17.997295 5.9230657 31
22.922661 -17.87574 5.9716477 40
-4.4583263 -17.691397 5.9323339 26.5
21.531961 -17.784891 5.8996625 31
21.670172 -17.756937 5.9508996 10
22.956888 -17.711241 5.9575186 45
23.062963 -17.663858 5.9189596 27
-4.4399619 -17.459225 5.87639 42
23.125393 -17.530739 5.9118395 26.5
33.58905 -17.448713 5.989902 28
-12.017683 -17.248228 5.9544821 16
-4.4975033 -17.285095 5.8853626 25.799999
-3.0965214 -17.371555 5.9428854 25.5
21.632473 -17.362484 5.8945932 10
22.607035 -17.22814 5.9318008 11
23.123346 -17.350574 5.8309703 43
33.49855 -17.229752 5.9676876 27
-4.656806 -17.128796 5.98522 41
22.357073 -17.160366 5.8852434 11
22.573246 -17.078194 5.9089036 11
22.715937 -17.114992 5.9759655 14.333333
23.134691 -17.096157 5.9139781 11
23.303284 -17.024616 5.8169222 10
-4.6252527 -16.952705 5.9959378 44
-4.5546989 -16.976164 5.9935441 58
-4.2482195 -16.938534 5.9511032 64.5
-4.1487417 -16.98369 5.951025 42
22.716722 -16.961651 5.9771266 10
23.33931 -16.924698 5.8098564 10
23.536877 -16.973236 5.8464565 10
33.363949 -16.976276 5.9241695 26.5
24.683811 -16.650652 5.9758701 10
33.237984 -16.740126 5.8836269 26.5
24.747223 -16.489075 5.9822049 32
33.099255 -16.506256 5.9081836 19
23.367722 -16.304655 5.8622251 11
24.785313 -16.272198 5.9749546 43
24.805967 -16.210211 5.9271579 21
32.954567 -16.2752 5.9042768 18.75
33.004116 -16.363312 5.9494762 12
24.850969 -16.109646 5.9566903 42
32.770771 -16.019415 5.9953022 39
32.834862 -16.080126 5.9083476 16.333334
24.903009 -15.909596 5.937994 27.666666
32.718437 -15.931423 5.9107485 25
32.814812 -15.961544 5.8839188 12
23.170027 -15.761929 5.9029198 10
23.260111 -15.704315 5.8935914 34.666668
23.575056 -15.726419 5.8331513 22
23.70182 -15.638992 5.8447018 44
23.914402 -15.622913 5.878108 33
24.024532 -15.688 5.9031959 11
32.576942 -15.689787 5.8696866 24
32.626003 -15.699093 5.8656769 16.666666
18.209324 -15.539739 5.9315009 16
23.960068 -15.536469 5.8765783 22
24.748755 -15.494838 5.8650775 47.666668
24.806688 -15.431585 5.8966885 51
32.498096 -15.530643 5.8802538 31
24.913002 -15.339656 5.8679051 40.666668
32.393131 -15.321022 5.8220491 23
32.428696 -15.381948 5.9363589 38.5
18.768265 -15.038124 5.956696 16
18.970261 -15.189094 5.9019833 15
19.024118 -15.126623 5.9026566 47
24.982346 -15.065014 5.857461 40
32.316635 -15.181896 5.9041691 38
18.182817 -14.966381 5.8415208 62
18.348101 -14.900337 5.8613162 15
18.482174 -14.908475 5.8865108 31
18.781076 -14.941216 5.9449983 16
18.930788 -14.953462 5.9737916 32
24.944397 -14.904898 5.9775796 45
25.028397 -14.893944 5.8879933 38
32.186569 -14.983689 5.826828 49
32.289162 -14.8746 5.8847723 55
25.127541 -14.737083 5.9095197 25.5
25.250275 -14.662103 5.9164219 32
32.502232 -14.730359 5.8821979 54.333332
32.690727 -14.630737 5.9076796 55.599998
-12.809668 -14.469194 5.9472141 39
19.2283 -14.441906 5.9557958 32
25.107859 -14.420622 5.9583993 11
32.776112 -14.570453 5.8814421 63
32.891815 -14.512695 5.8946447 50.222221
33.04258 -14.426075 5.8876243 44.25
-13.091097 -14.245342 5.9588065 49
-12.780686 -14.266499 5.9133034 53.5
33.152382 -14.352341 5.9582338 59
33.285069 -14.293805 5.9076462 54
33.457005 -14.217875 5.8667846 48
-13.29994 -14.132224 5.9755659 24.5
-13.116642 -14.150297 5.9492149 39
-12.862049 -14.162525 5.9109993 48
33.531837 -14.152764 5.8967824 49.25
33.760204 -14.032297 5.8929825 48
33.897842 -13.96306 5.9075451 52.5
34.135223 -13.833306 5.8514233 60.166668
34.341766 -13.719972 5.848989 59.111111
34.474949 -13.643283 5.8706851 60.5
34.604637 -13.601919 5.8327818 61
34.568615 -13.586178 5.8310728 60
34.693405 -13.523392 5.8956661 61.363636
34.856792 -13.437161 5.8770585 57
24.507023 -13.230963 5.8188415 11
34.948643 -13.37951 5.8533568 60.5
35.097073 -13.30185 5.8725581 58.333332
35.264187 -13.222069 5.8793283 61.333332
35.34325 -13.161836 5.8888397 61.75
35.507854 -13.079126 5.8821902 61.099998
35.631714 -13.017364 5.9286928 62
35.727261 -12.951006 5.8939533 60.25
35.890747 -12.869053 5.900857 59.666668
36.080189 -12.754424 5.9036684 59.400002
36.280228 -12.651746 5.9333353 59.75
28.684021 -12.460018 5.9539585 21
29.133327 -12.458623 5.9163318 10
36.379204 -12.596964 5.9300833 58
36.489796 -12.528534 5.9472651 56
36.664734 -12.432667 5.9408479 59.5
29.136356 -12.273304 5.9877334 42
36.772701 -12.36525 5.9373484 54
36.92205 -12.298693 5.944191 53.599998
37.082066 -12.207791 5.9526501 58.666668
-3.8621194 -12.119759 5.8400116 26.666666
29.257122 -12.044765 5.9741173 31.5
37.190079 -12.131887 5.9382677 57
37.292496 -12.082527 5.9475708 56
27.907225 -11.983854 5.8213596 20
28.315048 -11.841309 5.8137741 40
28.560349 -11.902774 5.8572798 51
28.654646 -11.869408 5.8651681 35.5
28.885813 -11.912508 5.9053402 41
29.090273 -11.937645 5.9353232 31
29.266994 -11.851095 5.9370184 36.5
37.51965 -11.952115 5.9671192 57
37.719406 -11.849432 5.9854126 57.5
-7.4206038 -11.650285 5.8359842 34
-4.7067118 -11.719761 5.8832345 13
28.325451 -11.770531 5.8054237 20
28.455051 -11.78186 5.8245111 40
29.314751 -11.775856 5.9411125 31
37.835903 -11.755412 5.9943447 29
-8.0142155 -11.139791 5.847775 75
-7.8282928 -11.064658 5.8006449 74
-7.7804356 -11.116792 5.8014483 74
6.4799318 -11.024875 5.8246307 27
-8.0848198 -10.958632 5.828229 78
-7.9311409 -10.957449 5.8000059 81
-6.9264703 -10.917917 5.9009047 51
-7.2556992 -10.694955 5.9206176 35
-6.9491153 -10.755806 5.871737 61
17.932667 -10.710106 5.9350538 25.5
18.096619 -10.656371 5.9022431 31
24.998402 -10.683781 5.9806399 29
25.030588 -10.60191 5.9720473 58
40.484043 -10.627375 5.8192549 52
-7.4068255 -10.478242 5.9072504 74
-7.3251362 -10.535179 5.9021311 63.5
17.862059 -10.543334 5.9571042 28
18.02198 -10.511724 5.9897156 49.5
40.664017 -10.534325 5.8393178 35
40.824757 -10.43469 5.8567286 17
-7.3278327 -10.313302 5.8578768 28
17.94108 -10.354668 5.839366 32
18.042974 -10.332727 5.8400636 36
18.317123 -10.234648 5.8892179 28
41.09977 -10.292889 5.8876114 18
21.148508 -10.130925 5.8154263 77
21.282242 -10.104365 5.840621 15
41.374393 -10.148808 5.9184899 18
41.583996 -10.058495 5.9427848 19
24.445629 -9.8901291 5.8188319 27
41.847061 -9.9812088 5.974503 19
24.464195 -9.7884083 5.8028274 54
24.639751 -9.7059593 5.8133941 33.5
25.051033 -9.7524958 5.8742418 34
42.178829 -9.7219925 5.8057003 42
42.375496 -9.6175213 5.8279319 43
24.695286 -9.5916595 5.8007703 27
42.564209 -9.5099649 5.8491588 43
42.72554 -9.4545717 5.8431258 43.666668
42.95747 -9.3302193 5.8530903 42.333332
43.103947 -9.2579556 5.8402724 32.666668
24.141676 -9.1274109 5.9071589 43
24.484566 -9.1704464 5.9859385 29
43.14653 -9.191823 5.9153466 45
43.316383 -9.1242456 5.8682089 45.599998
43.486526 -9.032464 5.8749104 44
43.611771 -9.0271101 5.8785782 25
24.268923 -8.9270191 5.982358 76
25.949154 -8.8540134 5.8629131 13
43.562328 -8.9809456 5.9190803 43
43.713058 -8.9042892 5.9185977 44
43.831078 -8.8398762 5.9142509 45.5
44.034237 -8.8032532 5.923914 25
25.989326 -8.7433586 5.9184279 28
26.091721 -8.742918 5.8086405 21
43.974037 -8.7563534 5.9049397 38
44.1418 -8.6811762 5.9437933 39.75
26.22368 -8.5964289 5.8125105 28
44.349426 -8.5531521 5.9480305 39.5
44.511806 -8.4837275 5.9695802 35.333332
25.677 -8.3398361 5.8729968 28
26.19256 -8.293272 5.9764543 29
26.239704 -8.311655 5.8201504 54
44.712555 -8.3419962 5.9732571 38
25.509563 -8.1497784 5.8162456 55
-13.722304 -7.6404905 5.9716606 34
-14.049733 -7.5210252 5.9800634 30
-13.968446 -7.4818649 5.957068 25
-13.854599 -7.080091 5.8493357 10
36.072262 -7.0751143 5.8162436 11
-7.5651593 -6.8921165 5.8239717 14
36.38961 -6.8387613 5.8568649 11
47.504162 -6.8147807 5.8150053 51
-8.6148434 -6.665381 5.818521 40
-7.6824889 -6.6988354 5.8187189 34
-7.5959878 -6.7948303 5.8148217 51
47.542191 -6.7858181 5.8106251 67
47.678482 -6.7120428 5.8285303 68
47.837662 -6.617012 5.8445396 42.5
35.241508 -6.452281 5.914248 12
47.989487 -6.5288358 5.8643179 71
48.079704 -6.4778814 5.8692474 52.5
35.189293 -6.2444057 5.9038448 13
35.326885 -6.3788104 5.9282112 19
35.458961 -6.2744465 5.9440303 12
48.352943 -6.3539019 5.8984013 35.5
48.511307 -6.2611136 5.8767586 64
35.373425 -6.1389275 5.9253173 12
35.613953 -6.0797062 5.9631615 12
48.665569 -6.1658492 5.8921294 58.666668
48.863403 -6.0604639 5.8780427 46.599998
-9.2669497 -5.836112 5.9487562 15
19.923761 -5.8926854 5.8122401 31
20.098707 -5.9013 5.8586078 34.666668
39.407009 -5.8207684 5.8176131 14
48.996712 -5.9589252 5.8937578 46.5
49.177963 -5.8846068 5.9203577 51.25
49.32386 -5.8344727 5.8823047 53
20.019855 -5.6366272 5.8178864 38
49.357307 -5.7684536 5.9299793 38.5
49.517647 -5.6967964 5.8896751 56.5
49.641331 -5.646843 5.9136086 73
49.707966 -5.5495963 5.8955045 20
49.905598 -5.5050712 5.9404125 55.5
50.116489 -5.3563747 5.9483213 40
50.304077 -5.2598133 5.9671774 50
-9.1122084 -5.0710812 5.8279533 15
19.520752 -5.1244602 5.8044009 39
50.470688 -5.1554613 5.9832354 51
50.698421 -5.0332012 5.9006143 48.5
-9.0742989 -4.9566717 5.8858624 35
50.991348 -4.9109449 5.8810458 49
24.93042 -4.6852727 5.9366269 12
51.132553 -4.7104526 5.8901567 49
20.93738 -4.3430943 5.9071431 36
21.211113 -4.309041 5.9790654 31.5
24.799654 -4.2387471 5.84934 23
24.889755 -4.2125678 5.8687644 29
51.527119 -4.2318106 5.9190125 50
51.738853 -4.1114511 5.9392796 51
51.934635 -3.9869661 5.9576516 52
52.169235 -3.8679481 5.9807143 52
23.196867 -3.0779436 5.801929 30
23.050461 -2.9230642 5.9020228 30
24.019049 -2.845521 5.8450727 14
27.655422 -2.8029137 5.9823461 30
-15.376009 -2.7319686 5.9593487 70
20.760363 -2.615077 5.8528848 13
23.007076 -2.7758236 5.8822808 30
24.78706 -2.7919486 5.8733387 23
25.544195 -2.7904949 5.880239 17
-15.015648 -2.5684869 5.8632898 40
-14.206899 -2.4343996 5.900094 22
20.169859 -2.4005303 5.8385653 40
20.223339 -2.5121021 5.8564234 36.5
20.757351 -2.481539 5.8477578 45.333332
22.514246 -2.5056491 5.8770251 18.5
23.587347 -2.4688299 5.8748136 15
23.644899 -2.5538538 5.89011 15
20.145491 -2.3266659 5.8297653 33
20.284035 -2.2713618 5.8649645 81
20.417057 -2.2109442 5.8986115 75
21.177248 -2.2666864 5.8592596 48
21.200289 -2.2586992 5.9615598 33
22.500265 -2.3990173 5.8686585 43
20.899336 -2.1199038 5.8267093 46.5
21.249201 -2.1935098 5.9730897 13
65.932831 -2.1130695 5.8918881 51
20.683435 -1.984633 5.8135614 51
20.869461 -1.9364882 5.8630776 71
21.304661 -1.9144711 5.981214 67
27.192455 -1.8818779 5.8401051 23
65.934792 -1.9171295 5.8892655 51
21.367773 -1.6354653 5.9924898 75
22.495022 -1.7456504 5.8426952 28
65.790779 -1.6966105 5.8728867 51
-15.143435 -1.451864 5.8232417 53
-13.256527 -1.5843251 5.8558373 35
60.44846 -1.4522228 5.9064403 51
67.33905 -1.4444461 5.8193283 51
-33.551701 -1.2382259 5.9820819 16
-15.167422 -1.3033875 5.8206172 61.666668
-9.7008257 -1.3590813 5.8724728 29
59.211338 -1.2251327 5.8101778 51
60.466984 -1.2882805 5.9075646 51
67.303085 -1.2344651 5.8122292 51
-33.558807 -1.1100581 5.9823718 16
-15.254573 -1.1273926 5.8119836 41.333332
-9.4349499 -1.0416598 5.9738822 18
23.870239 -1.1001161 5.8337579 12
59.339771 -1.0311139 5.8380513 51
-33.570538 -0.91785389 5.98311 16
-9.5441608 -0.83061647 5.981607 31.5
25.880133 -0.96277046 5.9074306 29
59.323059 -0.86499906 5.8206973 51
67.42305 -0.83602142 5.8152342 51
-33.567955 -0.66717535 5.9816217 16
-9.4876633 -0.63422728 5.9490232 37
67.49588 -0.63771772 5.8179612 51
-33.59132 -0.4754467 5.9844532 16
-13.981234 -0.47857571 5.8960538 56
-9.5500908 -0.54666972 5.9570618 43.5
59.51276 -0.55885804 5.9720707 51
-33.603664 -0.34741652 5.9859514 16
-14.726256 -0.3062396 5.8593483 54
-9.7706079 -0.29311776 5.9913664 41
25.422379 -0.23517489 5.8952298 35
27.482746 -0.39503527 5.9890075 20
27.972141 -0.22756767 5.8521996 29
59.339409 -0.36056316 5.9550271 51
-10.496955 -0.077202797 5.9339409 65
58.740944 -0.19513988 5.8415499 51
59.133522 -0.16271937 5.9348359 51
-14.123764 0.16315484 5.9987936 44
-10.554477 0.035514832 5.9377341 30
25.296255 0.050056934 5.8491807 23
27.991665 0.046001911 5.830533 35
58.440929 0.0021055937 5.8120532 51
58.922947 0.033749342 5.9142408 51
-14.754672 0.37637568 5.8284225 10
-14.593039 0.35620737 5.9960814 58
-14.320034 0.32401419 5.9335222 70
-14.026734 0.28544021 5.9705448 65
58.523911 0.30265915 5.8479404 51
59.392883 0.23684573 5.827301 51
-14.754653 0.57211637 5.8186555 10
21.356766 0.50169748 5.8929477 28.333334
21.408909 0.56047869 5.9927797 47
22.548613 0.48040971 5.8176031 67
58.591225 0.5579164 5.8277669 51
58.670849 0.41980469 5.8898773 51
59.434074 0.41902852 5.8315287 51
59.609844 0.59519076 5.8491516 51
21.380816 0.63845134 5.9000187 35
22.534819 0.64808434 5.8135448 61
26.170429 0.69610858 5.9647098 60
-13.962637 0.99627042 5.8195505 54
20.248875 0.9309485 5.827177 63
24.469341 0.84106129 5.8908968 28
25.469894 0.85136867 5.8722429 40.5
-14.816195 1.1303635 5.8034616 21
-13.929552 1.0732336 5.8086038 27
20.314161 1.1055223 5.8470206 56
-14.838403 1.2218275 5.8034 10
-13.933884 1.2979891 5.8007789 27
20.322683 1.3185256 5.8527141 44.333332
20.299221 1.4941089 5.8496943 36.5
20.671791 1.5090941 5.8058968 43
21.163916 1.7470273 5.9463024 6
59.374573 1.7834696 5.8818564 51
59.441051 1.6966823 5.8529143 51
21.104343 1.8831483 5.933609 34.666668
59.125359 1.9276148 5.8725805 51
22.596424 2.1345913 5.8455238 24
58.968815 2.0544355 5.8699265 51
59.053753 2.1393209 5.9326258 51
22.557287 2.3327308 5.8390112 36
22.642452 2.2383673 5.8604183 37.5
58.874935 2.3273141 5.9158425 51
26.291964 2.5734544 5.8008666 27
26.616117 2.5901332 5.8392682 17
23.557371 2.7724564 5.8757133 63
26.328432 2.7582061 5.8403106 36
26.474123 2.6772356 5.892848 52.5
58.520657 2.6020494 5.8282456 51
58.64299 2.6936159 5.894783 51
23.536156 2.8446856 5.9134474 46
25.698034 2.9295073 5.9044905 49.75
26.707222 2.8811855 5.8816614 38.5
26.804541 2.9208486 5.8150792 47.5
25.757772 3.0439782 5.9308691 42
26.751396 3.031745 5.8041048 68
26.824238 3.1122956 5.8232427 13
23.566433 3.3173168 5.9771371 56
23.629841 3.2778738 5.9072065 79
23.887159 3.5680466 5.9755917 32
23.870705 3.6504793 5.9746919 65
34.64753 3.7349777 5.9259911 14
33.92741 3.9767127 5.9868369 40
34.315826 3.9228253 5.9674864 31.5
34.522156 3.87901 5.8789954 45
34.695217 3.9423251 5.8483458 46
33.694786 4.1326265 5.866046 24
33.931149 4.1087956 5.9516487 35.333332
34.262428 4.068985 5.9159489 40
33.630993 4.2926579 5.8581467 30
33.848969 4.2755008 5.8982377 32
34.853931 4.2638254 5.876224 47
60.146439 4.3235722 5.9683948 51
33.56781 4.4411435 5.8502526 24
33.823696 4.5900493 5.8963127 25
34.064011 4.4687295 5.9104624 13
60.148273 4.4865513 5.9377661 51
32.75946 4.7395449 5.9950495 46
32.848667 4.7447777 5.8506985 20
32.494415 4.9033012 5.9477186 69
32.872688 4.8560419 5.8531799 40
59.810368 4.8878431 5.9543581 51
32.344437 5.0641637 5.9425683 70.666664
59.8508 5.016675 5.8947167 51
-15.794583 5.3627501 5.8577895 10
31.837809 5.2521324 5.8156075 9
34.143829 5.3129206 5.9656634 12
-15.869537 5.4820213 5.9394326 65
-15.697823 5.5250206 5.8590126 50
32.086449 5.5318689 5.9668083 58.5
32.283493 5.4742298 5.9396143 50.5
33.449486 5.552671 5.8546424 36
33.677765 5.4700651 5.8909874 61
34.002529 5.4060025 5.9440618 37
-15.705386 5.675909 5.8595481 32
31.535387 5.7217555 5.8841295 72
31.612885 5.6143484 5.8355684 58
-16.074356 5.9836063 5.918056 28
-15.85156 5.9264193 5.8613267 10
-15.775149 5.8358264 5.8479757 21
31.57992 5.8916945 5.8854713 55.333332
31.665152 5.840189 5.8872547 68
35.639603 5.9877229 5.8904691 10
-16.184637 6.0814199 5.9464574 58
-15.915895 6.0181746 5.8724618 21
30.947487 6.1300707 5.9527693 51
31.062546 6.1057153 5.9180045 60.666668
31.4562 6.0488625 5.976994 64
53.243664 6.1001062 5.8678746 29
57.433563 6.1895628 5.8039818 51
30.77647 6.3783016 5.9273582 41
30.949144 6.2677083 5.8964801 60.333332
-15.328976 6.5136218 5.9462814 36
-15.071866 6.5650392 5.8857312 35
30.722406 6.5198689 5.8873639 59.333332
30.869282 6.4383326 5.8509064 30.5
-15.766677 6.7763104 5.8388462 10
-15.227458 6.7524276 5.9369707 29
-15.145158 6.6572943 5.9101024 35
-14.795636 6.7935596 5.8328133 49
30.48525 6.6993413 5.9737 60.5
30.727058 6.6793051 5.8764114 42
35.73341 6.6441784 5.9090381 34
-15.13458 6.8044915 5.9175215 7
-14.923394 6.937758 5.8746257 39
30.480631 6.855032 5.9826365 55
30.863075 6.9067121 5.8849659 56.75
-16.411362 7.1414161 5.95891 44
-14.924836 7.0500579 5.8830676 35
-14.687065 7.1350417 5.8307099 48
30.888939 7.0995955 5.9233618 64.5
34.779598 7.0923729 5.8447123 12
30.738104 7.2489672 5.8966179 68
30.924831 7.3945017 5.8815165 78
-14.68534 7.5035172 5.8585563 35
30.540985 7.5446801 5.9164467 61.333332
30.882828 7.4658604 5.9548645 55.333332
-52.492657 7.6741061 5.9288063 53
-16.96814 7.7044187 5.9419937 48.5
30.191345 7.7322812 5.8686905 50
30.319326 7.7006392 5.9307117 68.666664
30.508219 7.6427836 5.9529901 53.666668
31.229813 7.6060762 5.9542265 64
-15.81078 7.846632 5.9621625 81
19.119537 7.9045544 5.8219032 65
30.158125 7.925189 5.8947506 58.75
30.220583 7.8898172 5.9109192 69.25
-15.875526 8.1436348 5.9407663 65.5
30.158396 8.0808229 5.9142075 67.400002
30.21154 8.1713295 5.8924866 57.5
30.178402 8.2831049 5.8943362 51
30.220795 8.2524261 5.9243302 65.333336
30.468479 8.3724117 5.8842316 66.5
-15.170149 8.534461 5.8716865 35
18.833944 8.4872465 5.8167925 40.5
19.469315 8.5485668 5.9829259 52.5
20.194223 8.538229 5.9686408 31
30.502542 8.5061264 5.9723711 55.25
30.692833 8.5555773 5.8644562 62
-15.144344 8.6018448 5.8721547 77
20.238791 8.6332207 5.9903727 38
30.565762 8.7232304 5.9560328 57
30.669859 8.6767406 5.8637295 78
18.715034 8.9157953 5.9529629 35
19.21332 8.9329195 5.9646993 33
30.730589 8.9427919 5.8869896 78
30.851198 8.8846188 5.9111614 63
-38.187683 9.0714207 5.8248563 28
18.232792 9.1565762 5.8654823 13
18.762798 9.180172 5.9954095 42
19.522226 9.1250591 5.8633103 12
20.704 9.1628408 5.830699 45.5
30.887917 9.0629921 5.9260817 64
-16.005741 9.2377491 5.8939261 44
-15.991481 9.3375769 5.8925638 44
20.666397 9.2574978 5.832459 67
31.086729 9.28016 5.9782524 48.333332
20.8368 9.5681753 5.9123507 70
31.018013 9.4366093 5.9697785 32
-25.57061 9.7712908 5.8754148 11.5
20.78021 9.6130037 5.9037251 38
21.884893 9.7773123 5.8819337 59
22.441589 9.7372646 5.8935857 6
22.634859 9.6978054 5.8880973 28
23.094995 9.7226372 5.9931436 59
31.294706 9.6799555 5.8771615 68
31.462212 9.785779 5.9208417 69
-26.397478 9.9567223 5.987546 23
-25.468241 9.8796873 5.8475394 22.666666
21.975519 9.8505249 5.9611945 64
22.50794 9.9754028 5.8862448 86
31.06781 9.8164825 5.8427935 49
31.295263 9.9154577 5.8871436 68
31.425447 9.8610058 5.9153595 55
31.93088 9.9693546 5.9754601 15
31.333498 10.08073 5.8741002 39.666668
31.530293 10.081013 5.9503441 35
17.982391 10.390116 5.8595743 25
31.567009 10.23678 5.9668574 30
32.619564 10.387205 5.802937 66
32.505615 10.440475 5.8636603 48
32.713745 10.509803 5.8290186 66
32.498085 10.719522 5.8909874 43.5
32.70438 10.688491 5.8983083 52
32.872932 10.761847 5.8749399 68
21.699493 10.923204 5.8560801 24
32.578503 10.920576 5.9141202 25
32.732285 10.832083 5.9433527 18
17.495565 11.056429 5.8449483 75
17.811956 11.015398 5.9118114 19
18.015169 11.062664 5.9660826 26
20.010147 11.220333 5.9302402 31
19.597111 11.524064 5.8774619 37
20.940586 11.435863 5.8650703 14
21.61377 11.615894 5.8641953 28
17.209896 12.199248 5.9625969 26
20.368181 12.01289 5.8181696 29
21.719324 12.034389 5.9347 14
16.493486 12.34437 5.8297691 43
-16.41592 12.581922 5.8503189 55
-16.339622 12.467522 5.8316803 44
-17.219534 12.667778 5.9070592 10
-16.491962 12.751177 5.9337111 33
-16.349529 12.666174 5.841836 55
-16.167667 12.724696 5.8113585 55
20.571226 12.607435 5.935226 30
-16.479265 12.903586 5.8790331 52.5
-16.329044 12.957525 5.8508596 44
-16.112373 12.810329 5.8050766 44
20.385548 12.821795 5.8246613 29
20.888527 12.814856 5.856154 28
22.733078 12.899637 5.9624362 45
22.852095 12.868431 5.8532152 56
-16.958128 13.171843 5.9157276 11
-16.535255 13.089951 5.8728871 55
-16.370293 13.069524 5.9453254 33
22.257666 13.165528 5.8989663 29
-17.960459 13.206839 5.9792991 10
-16.622898 13.324721 5.920784 11
-16.536747 13.236336 5.9007301 36
21.239164 13.329626 5.9933038 30
22.187241 13.39247 5.8332195 28
-16.821642 13.435265 5.9050455 11
-16.646442 13.496557 5.9200978 19
-16.511082 13.537796 5.8618846 20
-18.226389 13.741673 5.8295598 11
-16.733837 13.64925 5.9562635 22
-16.508984 13.682068 5.8652482 43.333332
16.3295 13.660175 5.8040409 36
22.592005 13.701607 5.907547 28
-18.211134 13.892035 5.8374381 39
-18.15234 13.834103 5.8459859 21
-16.512373 13.883533 5.9325347 36.333332
20.361578 13.80931 5.983511 30
35.341904 13.992367 5.8570347 11
35.424259 13.90928 5.8650703 22
35.376953 14.120608 5.8706336 11
-18.368267 14.346139 5.9212403 10
-15.777356 14.26132 5.8451929 48
-15.552307 14.262091 5.8044696 78
25.484852 14.291222 5.9410257 41
21.789284 14.467969 5.915493 23
25.326481 14.458063 5.9288025 20
25.473473 14.481094 5.9627934 48
-15.544355 14.661376 5.855598 48
24.590624 14.657516 5.8020144 26
25.483332 14.68827 5.990787 14
-17.894377 14.953631 5.8782773 10
-17.472147 14.9465 5.8009171 53
-15.505562 14.89034 5.9150834 61
-15.308808 14.897262 5.9665713 71.333336
26.142715 14.910696 5.8000093 46
-15.530333 15.105053 5.9127645 48.5
-15.37617 15.14892 5.9760265 33
26.129816 15.544244 5.8664308 27.666666
26.390676 15.511478 5.9507442 21
26.402939 15.595945 5.8681607 26
-15.938691 15.651421 5.92624 11
-15.70347 15.799252 5.8546953 10
26.39727 15.679544 5.8775373 65
26.439022 15.653132 5.9745626 10
13.665188 15.936434 5.9726858 33
17.969725 16.549976 5.8435044 28
40.311859 16.947269 5.9076972 18.25
40.31707 17.072752 5.8692508 13.333333
38.972424 17.278481 5.8672309 11
40.34557 17.209932 5.915535 14.333333
38.616905 17.775028 5.842443 11
38.433956 17.860483 5.8163567 19
39.019512 17.884954 5.8964119 18
38.661987 18.107311 5.8669434 14.5
38.589668 18.353146 5.8748455 23
39.908089 18.531174 5.8356562 14.5
39.057209 18.970022 5.954555 21
39.086224 19.051268 5.9962168 37
39.419849 19.092146 5.8433576 30
57.432087 19.061062 5.9672523 51
63.883457 19.010954 5.9329062 51
37.917713 19.369154 5.8472199 40
39.218563 19.25404 5.825336 15
57.398392 19.260601 5.9703064 51
63.97633 19.228455 5.9462109 51
37.970997 19.413115 5.8525953 54
39.639942 19.516064 5.9737806 12
51.237541 19.585964 5.8720074 28
57.379543 19.476074 5.9752688 51
57.382416 19.699471 5.982523 51
37.587021 19.919409 5.8314409 23
40.621185 19.992634 5.9702239 26
50.619923 19.873505 5.8137679 27
51.212074 19.871908 5.972611 25
64.862091 19.953461 5.8594723 51
0.36169839 20.085217 5.8492184 31
0.49878338 20.13315 5.861949 35.5
0.63670552 20.161083 5.8693938 39
0.9155876 20.062666 5.8428764 12.333333
23.565639 20.109568 5.9926333 68
37.327202 20.165348 5.8147321 29.5
37.993546 20.066877 5.8998923 20
38.072132 20.073284 5.9096904 21
38.387661 20.153942 5.8286891 33
38.426624 20.131628 5.9535213 42
38.91478 20.140896 5.9050112 23
63.352322 20.00963 5.9342589 51
64.818428 20.140083 5.8593574 51
21.875435 20.301184 5.8071814 34
37.139503 20.328278 5.8131862 46.5
37.243095 20.350628 5.8125296 23
38.636089 20.24966 5.8703651 47
40.217636 20.244143 5.9812312 18
48.554386 20.208773 5.9693069 17
63.061367 20.331415 5.9155545 51
63.418839 20.226881 5.9456644 51
0.13568288 20.452101 5.9509077 47
21.869137 20.579674 5.8468056 37.5
22.077473 20.438295 5.8720312 23
37.118286 20.479456 5.8202701 27
51.03894 20.553722 5.8467212 29.5
0.19514775 20.617052 5.9956794 27
0.26319271 20.606449 5.9923983 27
22.018814 20.634905 5.8659816 39
0.12941766 20.925304 5.9205923 34
0.48279333 20.805307 5.8252945 37
0.69372225 20.90732 5.8766789 25.5
21.937063 20.887041 5.8982487 49
22.099812 20.865692 5.9216685 27.5
22.223475 20.817522 5.9768996 36
38.313549 20.816284 5.8623657 23
-16.848383 21.129858 5.9790993 11
-16.630665 21.061956 5.9416089 11
0.73738837 21.091532 5.8885717 15.5
21.33569 21.138409 5.889739 56
21.573111 21.174654 5.9380388 30
21.71991 21.145296 5.957099 45
21.881498 21.045296 5.8760285 53
36.88028 21.124052 5.8192892 11
37.55743 21.129246 5.9184384 36
39.27655 21.035151 5.8271008 16
50.426762 21.061054 5.9212923 24
64.574913 21.06694 5.8572321 100
-16.640507 21.210609 5.9632816 11
1.1133459 21.328699 5.9349222 6
1.2707684 21.243839 5.9058418 6
21.520309 21.215555 5.937768 54
21.779463 21.242567 5.9419851 37.5
37.204639 21.247349 5.8711977 37
37.509804 21.29929 5.9194155 21
39.136803 21.297958 5.9412184 15
50.530384 21.202168 5.8485837 28
64.477242 21.23962 5.8522496 51
1.1804376 21.581972 5.8392963 6
21.960194 21.594219 5.8059578 23
22.492233 21.523026 5.8837023 5
24.211348 21.506607 5.8959594 35
37.661385 21.544561 5.8679943 16
39.090137 21.560276 5.9524169 15
64.60247 21.470287 5.8688717 51
36.695343 21.766891 5.8444972 11
64.635727 21.687782 5.8769131 51
21.105927 21.868189 5.9100404 66
21.215054 21.888786 5.93046 67
37.439175 21.980257 5.8265343 33
37.688698 21.836414 5.9935193 12
21.552586 22.173895 5.9132743 31
37.536907 22.006899 5.985353 25
51.887482 22.044065 5.9472275 34
21.75285 22.243561 5.9116673 45
24.480808 22.208395 5.8657937 54
36.722137 22.363211 5.911262 20
36.644825 22.487394 5.9115095 20
37.673271 22.476093 5.8164124 17
37.93959 22.595772 5.9440947 24
37.65596 22.631718 5.8353996 34
36.806976 22.984282 5.9631443 12
37.233284 22.895927 5.8068514 15
37.648926 22.913433 5.8575506 16
37.938774 22.972942 5.974721 12
38.705627 23.265247 5.9106455 17
35.618382 23.514837 5.8441687 11
52.778408 23.526209 5.8006496 51
29.118629 23.730015 5.8129044 33.5
37.990604 23.623941 5.8226595 11
27.119738 24.941154 5.8544254 23
-18.407419 25.036777 5.8734646 41
27.066545 25.625822 5.9262118 41
8.2080326 26.342762 5.9753733 6
7.6063461 26.81082 5.9291062 10
8.2126465 26.848791 5.9640608 6
42.799614 27.568457 5.8040762 16
9.1391087 27.927818 5.9210277 16
7.9331388 28.372589 5.8952713 12
42.108738 28.585495 5.8011355 16
42.242565 28.511091 5.810174 16
10.475464 28.971191 5.8697081 70.25
10.603208 28.984125 5.9016023 63
42.034916 28.869896 5.8139439 16
10.317194 29.069525 5.8905663 63.25
10.588532 29.005714 5.8512392 70
10.704979 29.055967 5.8914833 50.25
10.202742 29.224628 5.9248867 44.5
10.784417 29.206888 5.953527 32
10.816161 29.382481 5.94098 14
42.516937 29.383118 5.9032316 17
42.3484 29.434551 5.8890285 17
42.505554 29.932562 5.8866434 34.5
42.448761 30.104712 5.9121723 35
42.271667 30.416876 5.9545751 18
42.486847 30.400705 5.9760032 18
42.222656 35.561531 5.8236485 29
42.497696 35.590504 5.8489022 29
42.625942 35.48457 5.8521752 29
38.126911 37.077885 5.9911451 19
-0.84710217 38.357616 5.9641132 27
-0.71706557 38.433762 5.9517012 28.5
-0.45671368 38.571175 5.8297844 14
-1.0641084 38.609215 5.9373474 33
-0.87968659 38.655022 5.9363852 16
-0.40379047 38.743706 5.9613466 40
-0.33647895 38.735573 5.9421406 17.75
0.089347363 38.688732 5.9046726 16
0.50119352 38.647972 5.8519497 21
0.66872787 38.702221 5.8527093 27
0.82275009 38.733479 5.9017487 26
-18.84708 38.800564 5.8322015 49
-0.95370102 38.948727 5.9060574 30
-0.77789974 38.807076 5.8778505 29
-0.095395088 38.934113 5.9746122 13
0.30117083 38.995461 5.9404554 33
0.88590193 38.86787 5.8172312 28.5
-1.2435923 39.059166 5.9352126 15
-1.1247749 39.091324 5.9342537 45
-0.23350334 39.098782 5.89568 15
-0.018153191 39.046265 5.9876795 27
0.14935827 39.127651 5.9643545 33
-0.099151134 39.303749 5.9194469 22.5
0.033964157 39.519802 5.944993 30
38.00116 40.851315 5.9400773 27
79.544655 41.31599 5.9926763 63
79.429977 41.571918 5.993413 63
-14.096386 43.143295 5.8453875 25
-13.960735 43.385643 5.8599267 26
-13.563125 43.364323 5.933321 23
-13.61488 43.405743 5.8394918 25
36.244965 43.6991 5.928586 36
-13.641876 43.833263 5.8021474 25
36.620102 43.907318 5.9694753 37
36.088867 44.092785 5.9519253 36
36.211452 44.184052 5.8043251 51
36.464417 44.185284 5.8197742 51
35.645355 44.396885 5.9504704 36
35.510666 44.50127 5.95119 36
77.861923 44.479481 5.9835629 81.5
77.673058 44.743496 5.9871945 63
77.563438 44.987499 5.9885602 63
77.449318 45.245323 5.9901519 63
77.30677 45.486538 5.9896111 63
33.301411 45.683224 5.9258289 36
33.542736 45.747131 5.94489 36
33.665817 45.607365 5.9394608 36
77.152954 45.679092 5.9755154 63
33.23679 45.916374 5.9429064 36
77.000214 45.922508 5.9747992 12
33.152012 46.11916 5.9562583 37
76.857048 46.196815 5.9865851 13
35.867172 46.317223 5.943397 51
38.112976 46.203297 5.9369264 51
77.907806 46.641151 5.9800858 63
35.368576 46.950531 5.8235216 51
36.536346 46.991383 5.9137597 51
36.570137 47.335819 5.8689094 51
34.904591 48.721275 5.9328241 51
31.847769 48.956535 5.9244981 51
32.079494 48.946346 5.9359212 51
34.036095 48.984394 5.8508925 51
32.223759 49.013107 5.8062959 51
33.767033 49.156345 5.9137592 51
33.957783 49.107899 5.8951344 51
34.314068 49.046963 5.8711247 51
33.375187 49.335953 5.8969798 51
34.129837 49.363464 5.9434462 51
33.215702 49.442677 5.8955479 51
33.571495 49.557617 5.8716741 51
33.726597 49.47752 5.9127421 51
33.960014 49.479183 5.886961 51
34.027065 49.597301 5.9545145 51
36.885624 49.513489 5.9466991 51
31.306789 49.787567 5.8165226 51
31.568096 49.683571 5.8328772 51
33.100464 49.638485 5.9033356 51
33.245979 49.743748 5.8688469 51
33.442459 49.709736 5.8768926 51
33.919575 49.685257 5.9518428 51
31.427767 49.831104 5.8369741 51
33.092438 49.936558 5.900609 51
33.571861 49.864803 5.9464893 51
33.762123 49.802727 5.9522491 51
33.949039 49.954475 5.9204478 51
30.493671 50.108093 5.8093653 51
31.376471 50.119713 5.8570781 51
31.52895 50.186729 5.8095222 51
33.667488 50.135944 5.9840469 51
33.855251 50.186787 5.933208 51
31.2535 50.301643 5.8649468 51
33.079971 50.216255 5.8983264 51
33.535236 50.303616 5.9896827 51
30.69923 50.500206 5.8370924 51
32.651566 50.593323 5.9061074 51
33.054916 50.534351 5.9710894 51
30.488092 50.770741 5.8417034 51
30.672043 50.6367 5.8519821 51
30.886894 50.657852 5.8548827 51
30.629215 50.97324 5.8772016 51
33.393726 50.992561 5.9706559 51
29.838726 51.081387 5.8456154 51
30.083328 51.181141 5.8662167 51
30.403473 51.01046 5.8554163 51
28.96368 51.36829 5.8326659 51
29.399206 51.36467 5.8541656 51
30.557106 51.256935 5.8966537 51
29.160892 51.472988 5.8439503 51
29.872717 51.526642 5.8875494 51
28.228382 51.777542 5.8237104 51
28.435257 51.742912 5.8308115 51
29.07473 51.739883 5.8617835 51
29.799322 51.742527 5.9049168 51
29.8808 51.762764 5.861033 51
30.602482 51.774944 5.941361 51
46.326904 51.775574 5.9019351 51
46.478619 51.650192 5.9023986 51
28.124418 51.94487 5.835597 51
28.352938 51.903984 5.8462701 51
28.689625 51.808327 5.8486018 51
30.384882 51.962803 5.9028416 51
30.755995 51.879425 5.914412 51
29.80019 52.034218 5.8799949 51
30.248226 52.094795 5.9071674 51
31.020491 52.122604 5.9368124 51
29.463886 52.230469 5.8802323 51
30.723927 52.234436 5.991715 51
45.033081 52.330093 5.8639245 51
45.220474 52.253624 5.8695216 51
45.128872 52.785828 5.901814 51
46.254414 52.631088 5.9572587 51
46.489384 52.625191 5.9708662 51
45.117611 53.101913 5.9236107 51
28.298845 53.306686 5.9168935 51
31.583128 53.360237 5.9686589 51
31.753424 53.278568 5.9704189 51
44.986664 53.257935 5.9271307 51
28.160967 53.495323 5.9267321 51
28.522141 53.516296 5.9847422 51
31.404016 53.445351 5.9668031 51
27.866127 53.688576 5.9696126 51
28.119743 53.669807 5.9515171 51
28.47797 53.720543 5.99793 51
31.283863 53.611942 5.9748659 51
28.089281 53.997452 5.9485235 51
27.790962 54.062923 5.9958162 51
